           2
          15           2          30           6           4           4
 -0.4046826      7.4670717E-02  0.5540240       1.033377       1.512731    
   1.992084       2.471437       2.950791       3.430144       3.909497    
   4.388851       4.868204       5.347557       5.826910       6.306264    
 -0.4046827      7.4670605E-02  0.5540239       1.033377       1.512731    
   1.992084       2.471437       2.950791       3.430144       3.909497    
   4.388851       4.868204       5.347557       5.826910       6.306264    
 -0.1338908      0.3288314      0.7915536       1.254276       1.716998    
   2.179720       2.642442       3.105165       3.567887       4.030609    
   4.493331       4.956054       5.418776       5.881498       6.344220    
 -0.1338802      0.3288408      0.7915619       1.254283       1.717004    
   2.179725       2.642446       3.105167       3.567888       4.030609    
   4.493330       4.956051       5.418773       5.881494       6.344215    
  0.1369010      0.5829921       1.029083       1.475174       1.921265    
   2.367357       2.813448       3.259539       3.705630       4.151721    
   4.597812       5.043903       5.489995       5.936086       6.382177    
  0.1369222      0.5830110       1.029100       1.475189       1.921277    
   2.367366       2.813455       3.259544       3.705633       4.151721    
   4.597810       5.043899       5.489988       5.936077       6.382165    
  0.4076928      0.8371528       1.266613       1.696073       2.125533    
   2.554993       2.984453       3.413913       3.843373       4.272833    
   4.702293       5.131753       5.561213       5.990673       6.420133    
  0.4077247      0.8371813       1.266638       1.696094       2.125551    
   2.555007       2.984464       3.413920       3.843377       4.272833    
   4.702290       5.131747       5.561203       5.990660       6.420116    
  0.6784846       1.091313       1.504142       1.916971       2.329800    
   2.742629       3.155458       3.568287       3.981116       4.393945    
   4.806774       5.219603       5.632432       6.045260       6.458089    
  0.6785272       1.091352       1.504176       1.917000       2.329824    
   2.742649       3.155473       3.568297       3.981121       4.393946    
   4.806770       5.219594       5.632419       6.045243       6.458067    
  0.9492763       1.345474       1.741672       2.137870       2.534068    
   2.930265       3.326463       3.722661       4.118859       4.515057    
   4.911254       5.307452       5.703650       6.099848       6.496046    
  0.9493297       1.345522       1.741714       2.137906       2.534098    
   2.930290       3.326482       3.722674       4.118866       4.515058    
   4.911250       5.307442       5.703634       6.099826       6.496018    
   1.220068       1.599635       1.979202       2.358768       2.738335    
   3.117902       3.497468       3.877035       4.256602       4.636168    
   5.015735       5.395302       5.774868       6.154436       6.534002    
   1.220132       1.599692       1.979252       2.358811       2.738371    
   3.117931       3.497491       3.877050       4.256610       4.636170    
   5.015729       5.395289       5.774849       6.154409       6.533968    
   1.490860       1.853796       2.216731       2.579667       2.942602    
   3.305538       3.668473       4.031409       4.394345       4.757280    
   5.120216       5.483151       5.846087       6.209023       6.571959    
   1.490935       1.853862       2.216789       2.579717       2.942645    
   3.305572       3.668499       4.031427       4.394354       4.757282    
   5.120210       5.483137       5.846065       6.208992       6.571919    
   1.761652       2.107956       2.454261       2.800565       3.146870    
   3.493174       3.839479       4.185783       4.532088       4.878392    
   5.224697       5.571002       5.917306       6.263610       6.609915    
   1.761737       2.108032       2.454328       2.800623       3.146918    
   3.493213       3.839508       4.185803       4.532099       4.878394    
   5.224689       5.570984       5.917280       6.263575       6.609870    
   2.032391       2.362068       2.691746       3.021423       3.351100    
   3.680777       4.010454       4.340131       4.669808       4.999485    
   5.329163       5.658840       5.988517       6.318194       6.647871    
   2.032416       2.362087       2.691759       3.021431       3.351103    
   3.680775       4.010447       4.340118       4.669790       4.999462    
   5.329134       5.658805       5.988477       6.318149       6.647821    
   2.303131       2.618054       2.932977       3.247900       3.562824    
   3.877747       4.192670       4.507594       4.822517       5.137440    
   5.452363       5.767286       6.082209       6.397132       6.712055    
   2.303094       2.618006       2.932919       3.247831       3.562744    
   3.877656       4.192568       4.507481       4.822393       5.137305    
   5.452218       5.767129       6.082042       6.396954       6.711866    
   2.573906       2.879281       3.184656       3.490030       3.795405    
   4.100780       4.406155       4.711529       5.016904       5.322279    
   5.627654       5.933028       6.238403       6.543777       6.849152    
   2.573858       2.879223       3.184588       3.489954       3.795319    
   4.100685       4.406050       4.711416       5.016781       5.322146    
   5.627512       5.932877       6.238242       6.543608       6.848973    
   2.844682       3.140508       3.436334       3.732161       4.027987    
   4.323813       4.619640       4.915466       5.211293       5.507119    
   5.802945       6.098772       6.394598       6.690424       6.986250    
   2.844621       3.140440       3.436259       3.732077       4.027896    
   4.323714       4.619533       4.915351       5.211170       5.506989    
   5.802807       6.098626       6.394444       6.690263       6.986081    
   3.115457       3.401735       3.688013       3.974291       4.260569    
   4.546847       4.833125       5.119403       5.405681       5.691959    
   5.978237       6.264515       6.550793       6.837071       7.123349    
   3.115385       3.401657       3.687929       3.974200       4.260472    
   4.546744       4.833015       5.119287       5.405559       5.691831    
   5.978103       6.264374       6.550646       6.836918       7.123189    
   3.386232       3.662962       3.939692       4.216421       4.493151    
   4.769880       5.046610       5.323340       5.600070       5.876799    
   6.153529       6.430258       6.706988       6.983717       7.260447    
   3.386149       3.662874       3.939599       4.216323       4.493049    
   4.769773       5.046498       5.323223       5.599948       5.876673    
   6.153398       6.430123       6.706848       6.983572       7.260297    
   3.657007       3.924189       4.191370       4.458551       4.725733    
   4.992914       5.260095       5.527277       5.794458       6.061639    
   6.328820       6.596002       6.863183       7.130364       7.397545    
   3.656912       3.924090       4.191268       4.458447       4.725625    
   4.992803       5.259981       5.527159       5.794337       6.061515    
   6.328693       6.595871       6.863050       7.130228       7.397406    
   3.927832       4.185462       4.443091       4.700721       4.958350    
   5.215979       5.473608       5.731238       5.988867       6.246497    
   6.504126       6.761755       7.019385       7.277014       7.534644    
   3.927744       4.185370       4.442997       4.700623       4.958250    
   5.215876       5.473503       5.731129       5.988755       6.246382    
   6.504008       6.761635       7.019261       7.276887       7.534514    
   4.198657       4.446734       4.694812       4.942890       5.190967    
   5.439044       5.687122       5.935200       6.183277       6.431355    
   6.679432       6.927509       7.175587       7.423664       7.671741    
   4.198575       4.446650       4.694725       4.942800       5.190875    
   5.438949       5.687024       5.935099       6.183174       6.431248    
   6.679323       6.927398       7.175473       7.423547       7.671622    
   4.469482       4.708007       4.946533       5.185059       5.423584    
   5.662110       5.900635       6.139161       6.377687       6.616212    
   6.854738       7.093263       7.331789       7.570314       7.808840    
   4.469407       4.707930       4.946453       5.184976       5.423500    
   5.662023       5.900546       6.139069       6.377592       6.616115    
   6.854638       7.093161       7.331684       7.570207       7.808730    
   4.740306       4.969280       5.198254       5.427227       5.656201    
   5.885175       6.114149       6.343122       6.572096       6.801070    
   7.030044       7.259017       7.487991       7.716964       7.945938    
   4.740238       4.969210       5.198181       5.427153       5.656124    
   5.885096       6.114067       6.343039       6.572010       6.800982    
   7.029953       7.258924       7.487895       7.716867       7.945838    
   5.011131       5.230553       5.449975       5.669396       5.888818    
   6.108240       6.327662       6.547084       6.766506       6.985927    
   7.205349       7.424771       7.644193       7.863615       8.083036    
   5.011070       5.230490       5.449910       5.669329       5.888749    
   6.108169       6.327589       6.547009       6.766428       6.985848    
   7.205267       7.424687       7.644107       7.863527       8.082947    
   5.281956       5.491826       5.701695       5.911566       6.121436    
   6.331306       6.541175       6.751045       6.960915       7.170785    
   7.380655       7.590525       7.800395       8.010264       8.220134    
   5.281901       5.491769       5.701638       5.911506       6.121374    
   6.331242       6.541110       6.750978       6.960846       7.170714    
   7.380582       7.590451       7.800319       8.010187       8.220055    
   5.552781       5.753098       5.953416       6.153735       6.354053    
   6.554370       6.754689       6.955007       7.155324       7.355642    
   7.555961       7.756279       7.956596       8.156915       8.357232    
   5.552733       5.753049       5.953366       6.153682       6.353999    
   6.554315       6.754632       6.954948       7.155264       7.355581    
   7.555897       7.756214       7.956530       8.156847       8.357162    
   5.823605       6.014371       6.205137       6.395904       6.586669    
   6.777436       6.968202       7.158968       7.349734       7.540500    
   7.731266       7.922032       8.112799       8.303564       8.494330    
   5.823565       6.014329       6.205094       6.395859       6.586624    
   6.777388       6.968153       7.158918       7.349683       7.540447    
   7.731212       7.921977       8.112741       8.303506       8.494271    
   6.094430       6.275644       6.456859       6.638072       6.819287    
   7.000501       7.181715       7.362929       7.544144       7.725358    
   7.906572       8.087786       8.269000       8.450214       8.631429    
   6.094396       6.275609       6.456822       6.638035       6.819248    
   7.000462       7.181674       7.362888       7.544101       7.725314    
   7.906527       8.087740       8.268953       8.450166       8.631379    
   6.365255       6.536917       6.708580       6.880242       7.051904    
   7.223566       7.395228       7.566891       7.738553       7.910215    
   8.081878       8.253540       8.425202       8.596865       8.768527    
   6.365228       6.536889       6.708550       6.880212       7.051873    
   7.223535       7.395196       7.566857       7.738519       7.910180    
   8.081841       8.253503       8.425164       8.596826       8.768487    
   6.636079       6.798190       6.960300       7.122411       7.284521    
   7.446631       7.608742       7.770853       7.932963       8.095074    
   8.257184       8.419294       8.581405       8.743515       8.905625    
   6.636059       6.798169       6.960279       7.122388       7.284498    
   7.446608       7.608717       7.770827       7.932937       8.095047    
   8.257156       8.419266       8.581376       8.743485       8.905596    
   6.906904       7.059463       7.212021       7.364580       7.517138    
   7.669697       7.822256       7.974814       8.127373       8.279931    
   8.432489       8.585048       8.737607       8.890165       9.042724    
   6.906890       7.059449       7.212007       7.364565       7.517123    
   7.669681       7.822239       7.974797       8.127356       8.279913    
   8.432471       8.585030       8.737588       8.890145       9.042704    
   7.177729       7.320735       7.463742       7.606749       7.749755    
   7.892762       8.035769       8.178776       8.321782       8.464788    
   8.607796       8.750802       8.893808       9.036816       9.179822    
   7.177722       7.320728       7.463735       7.606741       7.749748    
   7.892754       8.035761       8.178767       8.321774       8.464780    
   8.607786       8.750793       8.893799       9.036805       9.179812    
   7.448554       7.582008       7.715463       7.848918       7.982373    
   8.115828       8.249282       8.382737       8.516191       8.649647    
   8.783101       8.916556       9.050011       9.183466       9.316920    
   7.448554       7.582008       7.715463       7.848918       7.982373    
   8.115828       8.249282       8.382737       8.516191       8.649647    
   8.783101       8.916556       9.050011       9.183466       9.316920    
 -0.4000000     -0.4000000     -0.4000000     -0.4000000     -0.4000000    
 -0.4000000     -0.4000000     -0.4000000     -0.4000000     -0.4000000    
 -0.4000000     -0.4000000     -0.4000000     -0.4000000     -0.4000000    
  0.4340002      0.4340000      0.4340000      0.4340000      0.4340000    
  0.4340000      0.4340000      0.4340000      0.4340000      0.4340000    
  0.4340000      0.4340000      0.4340000      0.4340000      0.4340000    
 -0.3866048     -0.3865830     -0.3865613     -0.3865396     -0.3865179    
 -0.3864962     -0.3864745     -0.3864528     -0.3864310     -0.3864093    
 -0.3863876     -0.3863659     -0.3863442     -0.3863225     -0.3863008    
  0.4172586      0.4172314      0.4172043      0.4171771      0.4171500    
  0.4171228      0.4170957      0.4170685      0.4170414      0.4170142    
  0.4169871      0.4169599      0.4169328      0.4169056      0.4168785    
 -0.3732095     -0.3731661     -0.3731227     -0.3730792     -0.3730358    
 -0.3729924     -0.3729489     -0.3729055     -0.3728621     -0.3728186    
 -0.3727752     -0.3727318     -0.3726884     -0.3726450     -0.3726015    
  0.4005172      0.4004629      0.4004086      0.4003543      0.4003000    
  0.4002457      0.4001914      0.4001371      0.4000827      0.4000284    
  0.3999741      0.3999198      0.3998655      0.3998112      0.3997569    
 -0.3598143     -0.3597491     -0.3596840     -0.3596188     -0.3595537    
 -0.3594885     -0.3594234     -0.3593583     -0.3592931     -0.3592280    
 -0.3591628     -0.3590977     -0.3590325     -0.3589674     -0.3589023    
  0.3837758      0.3836943      0.3836129      0.3835314      0.3834499    
  0.3833685      0.3832870      0.3832056      0.3831241      0.3830427    
  0.3829612      0.3828797      0.3827983      0.3827168      0.3826354    
 -0.3464190     -0.3463322     -0.3462453     -0.3461584     -0.3460716    
 -0.3459847     -0.3458979     -0.3458110     -0.3457242     -0.3456373    
 -0.3455504     -0.3454636     -0.3453767     -0.3452899     -0.3452030    
  0.3670343      0.3669257      0.3668171      0.3667085      0.3665999    
  0.3664913      0.3663827      0.3662741      0.3661655      0.3660569    
  0.3659483      0.3658397      0.3657311      0.3656225      0.3655139    
 -0.3330238     -0.3329152     -0.3328066     -0.3326981     -0.3325895    
 -0.3324809     -0.3323723     -0.3322638     -0.3321552     -0.3320466    
 -0.3319381     -0.3318295     -0.3317209     -0.3316123     -0.3315038    
  0.3502930      0.3501572      0.3500214      0.3498857      0.3497499    
  0.3496141      0.3494784      0.3493426      0.3492069      0.3490711    
  0.3489353      0.3487996      0.3486638      0.3485281      0.3483923    
 -0.3196285     -0.3194982     -0.3193680     -0.3192377     -0.3191074    
 -0.3189771     -0.3188468     -0.3187165     -0.3185862     -0.3184559    
 -0.3183257     -0.3181954     -0.3180651     -0.3179348     -0.3178045    
  0.3335516      0.3333886      0.3332257      0.3330628      0.3328999    
  0.3327370      0.3325741      0.3324112      0.3322482      0.3320853    
  0.3319224      0.3317595      0.3315966      0.3314337      0.3312708    
 -0.3062333     -0.3060813     -0.3059293     -0.3057773     -0.3056253    
 -0.3054733     -0.3053213     -0.3051693     -0.3050173     -0.3048653    
 -0.3047133     -0.3045613     -0.3044093     -0.3042573     -0.3041053    
  0.3168101      0.3166201      0.3164300      0.3162399      0.3160499    
  0.3158598      0.3156697      0.3154797      0.3152896      0.3150995    
  0.3149095      0.3147194      0.3145294      0.3143393      0.3141493    
 -0.2928381     -0.2926643     -0.2924906     -0.2923169     -0.2921432    
 -0.2919695     -0.2917958     -0.2916220     -0.2914483     -0.2912746    
 -0.2911009     -0.2909272     -0.2907535     -0.2905797     -0.2904060    
  0.3000687      0.2998515      0.2996343      0.2994171      0.2991998    
  0.2989826      0.2987654      0.2985482      0.2983310      0.2981138    
  0.2978966      0.2976793      0.2974621      0.2972449      0.2970277    
 -0.2794420     -0.2792467     -0.2790513     -0.2788559     -0.2786605    
 -0.2784652     -0.2782698     -0.2780744     -0.2778791     -0.2776837    
 -0.2774883     -0.2772929     -0.2770976     -0.2769022     -0.2767068    
  0.2833251      0.2830808      0.2828366      0.2825924      0.2823482    
  0.2821040      0.2818598      0.2816156      0.2813714      0.2811272    
  0.2808830      0.2806388      0.2803946      0.2801504      0.2799062    
 -0.2664087     -0.2663463     -0.2662839     -0.2662214     -0.2661590    
 -0.2660966     -0.2660342     -0.2659718     -0.2659093     -0.2658469    
 -0.2657845     -0.2657221     -0.2656597     -0.2655972     -0.2655348    
  0.2671190      0.2670843      0.2670496      0.2670150      0.2669803    
  0.2669456      0.2669109      0.2668762      0.2668415      0.2668069    
  0.2667722      0.2667375      0.2667028      0.2666681      0.2666335    
 -0.2624660     -0.2624069     -0.2623477     -0.2622886     -0.2622295    
 -0.2621704     -0.2621113     -0.2620521     -0.2619930     -0.2619339    
 -0.2618748     -0.2618156     -0.2617565     -0.2616974     -0.2616383    
  0.2649284      0.2648956      0.2648627      0.2648299      0.2647970    
  0.2647642      0.2647313      0.2646985      0.2646656      0.2646328    
  0.2645999      0.2645671      0.2645342      0.2645014      0.2644686    
 -0.2585233     -0.2584674     -0.2584116     -0.2583558     -0.2583000    
 -0.2582442     -0.2581883     -0.2581325     -0.2580767     -0.2580208    
 -0.2579650     -0.2579092     -0.2578534     -0.2577975     -0.2577412    
  0.2627378      0.2627068      0.2626758      0.2626448      0.2626138    
  0.2625827      0.2625518      0.2625207      0.2624897      0.2624587    
  0.2624277      0.2623967      0.2623656      0.2623346      0.2623036    
 -0.2545806     -0.2545280     -0.2544755     -0.2544230     -0.2543705    
 -0.2543179     -0.2542654     -0.2542128     -0.2541603     -0.2541078    
 -0.2540552     -0.2540027     -0.2539502     -0.2538976     -0.2538446    
  0.2605473      0.2605181      0.2604889      0.2604597      0.2604305    
  0.2604013      0.2603722      0.2603430      0.2603138      0.2602846    
  0.2602554      0.2602262      0.2601970      0.2601679      0.2601387    
 -0.2506378     -0.2505886     -0.2505394     -0.2504901     -0.2504409    
 -0.2503917     -0.2503424     -0.2502932     -0.2502440     -0.2501947    
 -0.2501455     -0.2500963     -0.2500470     -0.2499978     -0.2499481    
  0.2583567      0.2583293      0.2583020      0.2582746      0.2582473    
  0.2582199      0.2581926      0.2581652      0.2581379      0.2581105    
  0.2580832      0.2580558      0.2580285      0.2580011      0.2579737    
 -0.2466955     -0.2466492     -0.2466032     -0.2465573     -0.2465114    
 -0.2464654     -0.2464195     -0.2463735     -0.2463276     -0.2462817    
 -0.2462357     -0.2461898     -0.2461439     -0.2460979     -0.2460515    
  0.2561661      0.2561406      0.2561150      0.2560895      0.2560640    
  0.2560385      0.2560130      0.2559875      0.2559620      0.2559364    
  0.2559109      0.2558854      0.2558599      0.2558344      0.2558087    
 -0.2427528     -0.2427099     -0.2426673     -0.2426246     -0.2425820    
 -0.2425393     -0.2424967     -0.2424540     -0.2424113     -0.2423687    
 -0.2423260     -0.2422834     -0.2422407     -0.2421981     -0.2421550    
  0.2539756      0.2539519      0.2539282      0.2539046      0.2538809    
  0.2538572      0.2538335      0.2538098      0.2537861      0.2537624    
  0.2537387      0.2537150      0.2536913      0.2536676      0.2536438    
 -0.2388102     -0.2387707     -0.2387313     -0.2386920     -0.2386526    
 -0.2386132     -0.2385738     -0.2385345     -0.2384951     -0.2384557    
 -0.2384163     -0.2383770     -0.2383376     -0.2382982     -0.2382585    
  0.2517852      0.2517633      0.2517414      0.2517196      0.2516977    
  0.2516758      0.2516540      0.2516321      0.2516102      0.2515884    
  0.2515665      0.2515446      0.2515227      0.2515009      0.2514788    
 -0.2348676     -0.2348315     -0.2347954     -0.2347593     -0.2347232    
 -0.2346871     -0.2346510     -0.2346149     -0.2345788     -0.2345427    
 -0.2345067     -0.2344706     -0.2344345     -0.2343984     -0.2343619    
  0.2495947      0.2495747      0.2495547      0.2495346      0.2495146    
  0.2494945      0.2494745      0.2494544      0.2494344      0.2494143    
  0.2493943      0.2493742      0.2493542      0.2493342      0.2493139    
 -0.2309251     -0.2308923     -0.2308595     -0.2308266     -0.2307938    
 -0.2307610     -0.2307282     -0.2306954     -0.2306626     -0.2306298    
 -0.2305970     -0.2305641     -0.2305313     -0.2304985     -0.2304654    
  0.2474043      0.2473861      0.2473679      0.2473497      0.2473314    
  0.2473132      0.2472950      0.2472768      0.2472585      0.2472403    
  0.2472221      0.2472039      0.2471856      0.2471674      0.2471490    
 -0.2269826     -0.2269530     -0.2269235     -0.2268940     -0.2268644    
 -0.2268349     -0.2268054     -0.2267759     -0.2267463     -0.2267168    
 -0.2266873     -0.2266577     -0.2266282     -0.2265987     -0.2265691    
  0.2452139      0.2451975      0.2451811      0.2451647      0.2451483    
  0.2451319      0.2451155      0.2450991      0.2450827      0.2450663    
  0.2450499      0.2450335      0.2450171      0.2450007      0.2449840    
 -0.2230401     -0.2230138     -0.2229876     -0.2229613     -0.2229351    
 -0.2229088     -0.2228826     -0.2228563     -0.2228301     -0.2228038    
 -0.2227776     -0.2227513     -0.2227251     -0.2226988     -0.2226726    
  0.2430235      0.2430089      0.2429943      0.2429797      0.2429651    
  0.2429506      0.2429360      0.2429214      0.2429068      0.2428923    
  0.2428777      0.2428631      0.2428485      0.2428339      0.2428192    
 -0.2190976     -0.2190746     -0.2190516     -0.2190287     -0.2190057    
 -0.2189827     -0.2189597     -0.2189368     -0.2189138     -0.2188908    
 -0.2188679     -0.2188449     -0.2188219     -0.2187990     -0.2187760    
  0.2408330      0.2408203      0.2408075      0.2407948      0.2407820    
  0.2407693      0.2407565      0.2407437      0.2407310      0.2407182    
  0.2407055      0.2406927      0.2406799      0.2406672      0.2406543    
 -0.2151551     -0.2151354     -0.2151157     -0.2150960     -0.2150763    
 -0.2150566     -0.2150369     -0.2150172     -0.2149975     -0.2149779    
 -0.2149582     -0.2149385     -0.2149188     -0.2148991     -0.2148794    
  0.2386426      0.2386317      0.2386207      0.2386098      0.2385989    
  0.2385879      0.2385770      0.2385661      0.2385551      0.2385442    
  0.2385333      0.2385223      0.2385114      0.2385004      0.2384894    
 -0.2112125     -0.2111961     -0.2111797     -0.2111633     -0.2111469    
 -0.2111305     -0.2111141     -0.2110977     -0.2110813     -0.2110649    
 -0.2110485     -0.2110321     -0.2110157     -0.2109993     -0.2109829    
  0.2364522      0.2364431      0.2364339      0.2364248      0.2364157    
  0.2364066      0.2363975      0.2363884      0.2363793      0.2363702    
  0.2363610      0.2363519      0.2363428      0.2363337      0.2363244    
 -0.2072700     -0.2072569     -0.2072438     -0.2072307     -0.2072175    
 -0.2072044     -0.2071913     -0.2071782     -0.2071650     -0.2071519    
 -0.2071388     -0.2071257     -0.2071125     -0.2070994     -0.2070862    
  0.2342617      0.2342544      0.2342472      0.2342399      0.2342326    
  0.2342253      0.2342180      0.2342107      0.2342034      0.2341961    
  0.2341888      0.2341815      0.2341743      0.2341670      0.2341595    
 -0.2033275     -0.2033177     -0.2033078     -0.2032980     -0.2032882    
 -0.2032783     -0.2032685     -0.2032586     -0.2032488     -0.2032389    
 -0.2032291     -0.2032192     -0.2032094     -0.2031996     -0.2031896    
  0.2320713      0.2320658      0.2320604      0.2320549      0.2320494    
  0.2320440      0.2320385      0.2320330      0.2320276      0.2320221    
  0.2320166      0.2320112      0.2320057      0.2320002      0.2319947    
 -0.1993850     -0.1993785     -0.1993719     -0.1993653     -0.1993588    
 -0.1993522     -0.1993456     -0.1993391     -0.1993325     -0.1993260    
 -0.1993194     -0.1993128     -0.1993063     -0.1992997     -0.1992931    
  0.2298809      0.2298772      0.2298736      0.2298699      0.2298663    
  0.2298626      0.2298590      0.2298554      0.2298517      0.2298481    
  0.2298444      0.2298408      0.2298371      0.2298335      0.2298298    
 -0.1954425     -0.1954392     -0.1954360     -0.1954327     -0.1954294    
 -0.1954261     -0.1954228     -0.1954195     -0.1954163     -0.1954130    
 -0.1954097     -0.1954064     -0.1954031     -0.1953999     -0.1953965    
  0.2276904      0.2276886      0.2276868      0.2276850      0.2276831    
  0.2276813      0.2276795      0.2276777      0.2276759      0.2276740    
  0.2276722      0.2276704      0.2276686      0.2276667      0.2276649    
 -0.1915000     -0.1915000     -0.1915000     -0.1915000     -0.1915000    
 -0.1915000     -0.1915000     -0.1915000     -0.1915000     -0.1915000    
 -0.1915000     -0.1915000     -0.1915000     -0.1915000     -0.1915000    
  0.2255000      0.2255000      0.2255000      0.2255000      0.2255000    
  0.2255000      0.2255000      0.2255000      0.2255000      0.2255000    
  0.2255000      0.2255000      0.2255000      0.2255000      0.2255000    
 -0.1891201     -0.1891201     -0.1891201     -0.1891201     -0.1891201    
 -0.1891201     -0.1891201     -0.1891201     -0.1891201     -0.1891201    
 -0.1891201     -0.1891201     -0.1891201     -0.1891201     -0.1891201    
 -0.1891203     -0.1891202     -0.1891203     -0.1891203     -0.1891203    
 -0.1891202     -0.1891202     -0.1891202     -0.1891202     -0.1891202    
 -0.1891202     -0.1891202     -0.1891201     -0.1891201     -0.1891201    
  0.3117078      0.3125196      0.3133315      0.3141434      0.3149553    
  0.3157671      0.3165790      0.3173909      0.3182028      0.3190146    
  0.3198265      0.3206384      0.3214503      0.3222621      0.3230740    
  0.3116286      0.3124408      0.3132529      0.3140650      0.3148772    
  0.3156893      0.3165014      0.3173136      0.3181258      0.3189379    
  0.3197500      0.3205622      0.3213744      0.3221865      0.3229987    
  0.8125356      0.8141594      0.8157831      0.8174069      0.8190306    
  0.8206544      0.8222781      0.8239019      0.8255256      0.8271494    
  0.8287731      0.8303969      0.8320206      0.8336444      0.8352681    
  0.8123774      0.8140018      0.8156260      0.8172503      0.8188745    
  0.8204988      0.8221231      0.8237474      0.8253717      0.8269960    
  0.8286203      0.8302445      0.8318689      0.8334932      0.8351175    
   1.313364       1.315799       1.318235       1.320670       1.323106    
   1.325542       1.327977       1.330413       1.332849       1.335284    
   1.337720       1.340155       1.342591       1.345027       1.347462    
   1.313126       1.315563       1.317999       1.320436       1.322872    
   1.325308       1.327745       1.330181       1.332618       1.335054    
   1.337491       1.339927       1.342363       1.344800       1.347236    
   1.814191       1.817439       1.820686       1.823934       1.827181    
   1.830429       1.833676       1.836924       1.840171       1.843419    
   1.846666       1.849914       1.853161       1.856409       1.859656    
   1.813875       1.817124       1.820372       1.823621       1.826869    
   1.830118       1.833367       1.836615       1.839864       1.843112    
   1.846361       1.849609       1.852858       1.856106       1.859355    
   2.315019       2.319079       2.323138       2.327198       2.331257    
   2.335316       2.339375       2.343435       2.347494       2.351554    
   2.355613       2.359672       2.363732       2.367791       2.371850    
   2.314624       2.318685       2.322745       2.326806       2.330867    
   2.334928       2.338988       2.343049       2.347110       2.351170    
   2.355231       2.359292       2.363352       2.367413       2.371474    
   2.815847       2.820719       2.825590       2.830461       2.835332    
   2.840204       2.845075       2.849946       2.854817       2.859689    
   2.864560       2.869431       2.874302       2.879174       2.884045    
   2.815373       2.820246       2.825119       2.829991       2.834864    
   2.839737       2.844610       2.849483       2.854356       2.859228    
   2.864101       2.868974       2.873847       2.878720       2.883593    
   3.316675       3.322358       3.328041       3.333724       3.339408    
   3.345091       3.350774       3.356457       3.362140       3.367823    
   3.373506       3.379189       3.384872       3.390556       3.396239    
   3.316122       3.321807       3.327492       3.333177       3.338861    
   3.344547       3.350231       3.355917       3.361601       3.367286    
   3.372971       3.378656       3.384341       3.390026       3.395711    
   3.817503       3.823998       3.830493       3.836988       3.843483    
   3.849978       3.856473       3.862968       3.869463       3.875958    
   3.882453       3.888948       3.895443       3.901938       3.908433    
   3.816870       3.823368       3.829865       3.836362       3.842859    
   3.849356       3.855853       3.862350       3.868847       3.875345    
   3.881842       3.888339       3.894836       3.901333       3.907830    
   4.318359       4.325664       4.332969       4.340273       4.347579    
   4.354883       4.362188       4.369493       4.376798       4.384102    
   4.391407       4.398712       4.406017       4.413322       4.420627    
   4.317687       4.324991       4.332295       4.339600       4.346904    
   4.354208       4.361513       4.368817       4.376122       4.383426    
   4.390731       4.398035       4.405340       4.412644       4.419949    
   4.819225       4.827157       4.835089       4.843020       4.850952    
   4.858884       4.866816       4.874748       4.882679       4.890611    
   4.898543       4.906475       4.914407       4.922339       4.930271    
   4.818520       4.826453       4.834387       4.842320       4.850254    
   4.858187       4.866120       4.874053       4.881987       4.889920    
   4.897854       4.905787       4.913720       4.921654       4.929587    
   5.320225       5.327738       5.335250       5.342763       5.350276    
   5.357789       5.365301       5.372814       5.380327       5.387839    
   5.395352       5.402864       5.410378       5.417890       5.425403    
   5.319565       5.327078       5.334592       5.342105       5.349619    
   5.357133       5.364646       5.372160       5.379673       5.387187    
   5.394701       5.402214       5.409728       5.417242       5.424755    
   5.821226       5.828320       5.835413       5.842507       5.849601    
   5.856695       5.863789       5.870883       5.877976       5.885070    
   5.892164       5.899258       5.906352       5.913445       5.920539    
   5.820610       5.827704       5.834798       5.841892       5.848986    
   5.856080       5.863174       5.870268       5.877363       5.884457    
   5.891551       5.898645       5.905739       5.912833       5.919928    
   6.322226       6.328901       6.335576       6.342251       6.348926    
   6.355601       6.362276       6.368951       6.375626       6.382301    
   6.388976       6.395650       6.402326       6.409000       6.415676    
   6.321654       6.328329       6.335004       6.341679       6.348353    
   6.355028       6.361702       6.368377       6.375052       6.381726    
   6.388401       6.395076       6.401751       6.408425       6.415100    
   6.823226       6.829483       6.835739       6.841995       6.848251    
   6.854507       6.860763       6.867019       6.873275       6.879531    
   6.885787       6.892044       6.898300       6.904556       6.910812    
   6.822699       6.828955       6.835210       6.841465       6.847720    
   6.853975       6.860230       6.866486       6.872741       6.878996    
   6.885252       6.891507       6.897762       6.904017       6.910272    
   7.324227       7.330064       7.335901       7.341738       7.347576    
   7.353413       7.359250       7.365088       7.370925       7.376762    
   7.382599       7.388436       7.394274       7.400111       7.405948    
   7.323744       7.329580       7.335415       7.341251       7.347087    
   7.352923       7.358758       7.364594       7.370430       7.376266    
   7.382102       7.387938       7.393773       7.399609       7.405445    
   7.825200       7.830621       7.836041       7.841461       7.846881    
   7.852302       7.857722       7.863142       7.868563       7.873983    
   7.879404       7.884824       7.890244       7.895664       7.901085    
   7.824752       7.830171       7.835590       7.841009       7.846428    
   7.851847       7.857265       7.862685       7.868104       7.873522    
   7.878942       7.884360       7.889779       7.895198       7.900617    
   8.326174       8.331178       8.336181       8.341184       8.346188    
   8.351191       8.356194       8.361197       8.366200       8.371204    
   8.376207       8.381211       8.386214       8.391218       8.396221    
   8.325761       8.330763       8.335765       8.340767       8.345769    
   8.350771       8.355773       8.360775       8.365777       8.370779    
   8.375781       8.380783       8.385785       8.390787       8.395789    
   8.827147       8.831734       8.836321       8.840907       8.845493    
   8.850080       8.854666       8.859253       8.863839       8.868425    
   8.873012       8.877599       8.882185       8.886771       8.891357    
   8.826769       8.831354       8.835939       8.840525       8.845110    
   8.849694       8.854280       8.858865       8.863450       8.868035    
   8.872621       8.877206       8.881791       8.886376       8.890962    
   9.328121       9.332291       9.336460       9.340630       9.344799    
   9.348969       9.353138       9.357307       9.361477       9.365646    
   9.369816       9.373985       9.378155       9.382324       9.386494    
   9.327777       9.331945       9.336114       9.340281       9.344450    
   9.348619       9.352787       9.356956       9.361124       9.365293    
   9.369461       9.373629       9.377797       9.381966       9.386134    
   9.829095       9.832848       9.836600       9.840353       9.844105    
   9.847857       9.851610       9.855363       9.859116       9.862867    
   9.866620       9.870373       9.874125       9.877878       9.881631    
   9.828785       9.832537       9.836287       9.840039       9.843791    
   9.847543       9.851295       9.855045       9.858797       9.862549    
   9.866301       9.870052       9.873803       9.877555       9.881307    
   10.33007       10.33340       10.33674       10.34008       10.34341    
   10.34675       10.35008       10.35342       10.35675       10.36009    
   10.36342       10.36676       10.37010       10.37343       10.37677    
   10.32979       10.33313       10.33646       10.33980       10.34313    
   10.34647       10.34980       10.35314       10.35647       10.35981    
   10.36314       10.36648       10.36981       10.37314       10.37648    
   10.83104       10.83396       10.83688       10.83980       10.84272    
   10.84564       10.84855       10.85147       10.85439       10.85731    
   10.86023       10.86315       10.86607       10.86899       10.87190    
   10.83080       10.83372       10.83664       10.83955       10.84247    
   10.84539       10.84831       10.85123       10.85414       10.85706    
   10.85998       10.86290       10.86582       10.86873       10.87165    
   11.33202       11.33452       11.33702       11.33952       11.34202    
   11.34452       11.34703       11.34953       11.35203       11.35453    
   11.35703       11.35953       11.36204       11.36454       11.36704    
   11.33181       11.33431       11.33681       11.33931       11.34181    
   11.34431       11.34682       11.34932       11.35182       11.35432    
   11.35682       11.35932       11.36182       11.36432       11.36682    
   11.83299       11.83507       11.83716       11.83924       11.84133    
   11.84341       11.84550       11.84758       11.84967       11.85175    
   11.85384       11.85592       11.85801       11.86009       11.86218    
   11.83282       11.83490       11.83699       11.83907       11.84115    
   11.84324       11.84532       11.84741       11.84949       11.85157    
   11.85366       11.85574       11.85783       11.85991       11.86200    
   12.33396       12.33563       12.33730       12.33897       12.34063    
   12.34230       12.34397       12.34564       12.34731       12.34897    
   12.35064       12.35231       12.35398       12.35565       12.35731    
   12.33383       12.33549       12.33716       12.33883       12.34050    
   12.34216       12.34383       12.34550       12.34716       12.34883    
   12.35050       12.35217       12.35383       12.35550       12.35717    
   12.83494       12.83619       12.83744       12.83869       12.83994    
   12.84119       12.84244       12.84369       12.84494       12.84620    
   12.84745       12.84870       12.84995       12.85120       12.85245    
   12.83483       12.83608       12.83733       12.83858       12.83984    
   12.84109       12.84234       12.84359       12.84484       12.84609    
   12.84734       12.84859       12.84984       12.85109       12.85234    
   13.33591       13.33674       13.33758       13.33841       13.33925    
   13.34008       13.34091       13.34175       13.34258       13.34342    
   13.34425       13.34508       13.34592       13.34675       13.34759    
   13.33584       13.33668       13.33751       13.33834       13.33918    
   13.34001       13.34084       13.34168       13.34251       13.34334    
   13.34418       13.34501       13.34585       13.34668       13.34751    
   13.83688       13.83730       13.83772       13.83814       13.83855    
   13.83897       13.83939       13.83980       13.84022       13.84064    
   13.84105       13.84147       13.84189       13.84231       13.84272    
   13.83685       13.83727       13.83768       13.83810       13.83852    
   13.83893       13.83935       13.83977       13.84019       13.84060    
   13.84102       13.84144       13.84185       13.84227       13.84269    
   14.33786       14.33786       14.33786       14.33786       14.33786    
   14.33786       14.33786       14.33786       14.33786       14.33786    
   14.33786       14.33786       14.33786       14.33786       14.33786    
   14.33786       14.33786       14.33786       14.33786       14.33786    
   14.33786       14.33786       14.33786       14.33786       14.33786    
   14.33786       14.33786       14.33786       14.33786       14.33786    
   5.770938       6.487906       7.204874       7.921842       8.638809    
   9.355777       5.770938       6.487906       7.204874       7.921841    
   8.638809       9.355777       5.770938       6.487906       7.204874    
   7.921841       8.638809       9.355777       5.770938       6.487906    
   7.204874       7.921841       8.638809       9.355777       5.770938    
   6.487906       7.204874       7.921842       8.638809       9.355777    
   5.770938       6.487906       7.204874       7.921841       8.638809    
   9.355777       5.770938       6.487906       7.204874       7.921841    
   8.638809       9.355777       5.770938       6.487906       7.204874    
   7.921841       8.638809       9.355777       5.770938       6.487906    
   7.204874       7.921841       8.638809       9.355777       5.770938    
   6.487906       7.204874       7.921841       8.638809       9.355777    
   5.770938       6.487906       7.204874       7.921841       8.638809    
   9.355777       5.770938       6.487906       7.204874       7.921841    
   8.638809       9.355777       5.770938       6.487906       7.204874    
   7.921841       8.638809       9.355777       5.770938       6.487906    
   7.204874       7.921841       8.638809       9.355777       5.770938    
   6.487906       7.204874       7.921841       8.638809       9.355777    
   5.770938       6.487906       7.204874       7.921841       8.638809    
   9.355777    
  0.3322234      0.3322234      0.3322234      0.3322234      0.3322234    
  0.3322234       1.099702       1.099702       1.099702       1.099702    
   1.099702       1.099702       1.867182       1.867182       1.867182    
   1.867182       1.867182       1.867182       2.634661       2.634661    
   2.634661       2.634661       2.634661       2.634661      0.3322219    
  0.3322219      0.3322219      0.3322219      0.3322219      0.3322219    
   1.099701       1.099701       1.099701       1.099701       1.099701    
   1.099701       1.867180       1.867180       1.867180       1.867180    
   1.867180       1.867180       2.634659       2.634659       2.634659    
   2.634659       2.634659       2.634659      0.3322203      0.3322203    
  0.3322203      0.3322203      0.3322203      0.3322203       1.099699    
   1.099699       1.099699       1.099699       1.099699       1.099699    
   1.867179       1.867178       1.867178       1.867178       1.867178    
   1.867179       2.634658       2.634658       2.634658       2.634658    
   2.634658       2.634658      0.3322188      0.3322188      0.3322188    
  0.3322188      0.3322188      0.3322188       1.099698       1.099698    
   1.099698       1.099698       1.099698       1.099698       1.867177    
   1.867177       1.867177       1.867177       1.867177       1.867177    
   2.634656       2.634656       2.634656       2.634656       2.634656    
   2.634656    
   3.202497       3.202497       3.202497       3.202497       3.202497    
   3.202497       3.202499       3.202499       3.202499       3.202499    
   3.202499       3.202499       3.202501       3.202501       3.202501    
   3.202501       3.202501       3.202501       3.202502       3.202502    
   3.202502       3.202502       3.202502       3.202502       4.002498    
   4.002498       4.002498       4.002498       4.002498       4.002498    
   4.002499       4.002499       4.002499       4.002499       4.002499    
   4.002499       4.002501       4.002501       4.002501       4.002501    
   4.002501       4.002501       4.002502       4.002502       4.002502    
   4.002502       4.002502       4.002502       4.802497       4.802497    
   4.802497       4.802497       4.802497       4.802497       4.802499    
   4.802499       4.802499       4.802499       4.802499       4.802499    
   4.802501       4.802501       4.802501       4.802501       4.802501    
   4.802501       4.802502       4.802502       4.802502       4.802502    
   4.802502       4.802502       5.602498       5.602498       5.602498    
   5.602498       5.602498       5.602498       5.602499       5.602499    
   5.602499       5.602499       5.602499       5.602499       5.602501    
   5.602501       5.602501       5.602501       5.602501       5.602501    
   5.602502       5.602502       5.602502       5.602502       5.602502    
   5.602502    
